-2.980700000000000016e-02 -8.484000000000000222e-03 7.805399999999999838e-02 4.739906216855160892e-05 1.000000000000000000e+00 2.230037353001534939e-04
9.421000000000000207e-02 8.534100000000000019e-02 -6.633799999999999419e-02 9.002642035484313965e-01 -1.722415983676910400e-01 3.998215198516845703e-01
5.338600000000000290e-02 1.517199999999999972e-02 1.431669999999999887e-01 -1.781759900040924549e-03 -9.998151659965515137e-01 -1.914248056709766388e-02
1.910999999999999938e-03 1.520099999999999923e-02 2.602099999999999899e-02 -2.787380944937467575e-04 -9.999998807907104492e-01 -4.202015115879476070e-04
-6.326000000000000026e-03 8.239900000000000002e-02 -9.172600000000000198e-02 9.440268576145172119e-02 2.514556646347045898e-01 9.632539749145507812e-01
1.975300000000000111e-01 -1.493460000000000065e-01 3.216299999999999715e-02 -1.389515250921249390e-01 -2.697997093200683594e-01 -9.528381824493408203e-01
-1.660310000000000119e-01 -2.393199999999999841e-02 1.063300000000000009e-02 -1.215802412480115891e-02 9.773619771003723145e-01 2.112245112657546997e-01
-1.892949999999999910e-01 -2.937299999999999980e-02 5.533199999999999924e-02 1.291309446096420288e-01 5.252173915505409241e-02 -9.902356863021850586e-01
1.323299999999999997e-02 -1.285050000000000081e-01 1.482169999999999876e-01 -9.066421985626220703e-01 -4.924166202545166016e-02 -4.190168678760528564e-01
-1.481669999999999932e-01 3.565600000000000019e-02 2.874700000000000172e-02 2.379798889160156250e-01 -9.701491594314575195e-01 4.665003716945648193e-02
8.280099999999999960e-02 5.710300000000000098e-02 -4.782299999999999746e-02 3.564546704292297363e-01 -1.310317218303680420e-01 -9.250788092613220215e-01
1.360220000000000040e-01 -1.852900000000000033e-02 1.172030000000000016e-01 -4.242427051067352295e-01 6.963976025581359863e-01 -5.788336992263793945e-01
-9.946599999999999886e-02 -8.488000000000000753e-03 1.090760000000000063e-01 4.739906216855160892e-05 1.000000000000000000e+00 2.230037353001534939e-04
-1.454249999999999987e-01 1.902000000000000045e-03 -2.809899999999999898e-02 1.956004649400711060e-01 9.650947451591491699e-01 1.741625964641571045e-01
-1.024820000000000036e-01 1.303499999999999971e-02 -6.398399999999999921e-02 4.324576854705810547e-01 3.107776343822479248e-01 8.464027643203735352e-01
1.433840000000000114e-01 6.563700000000000090e-02 -3.709000000000000057e-03 2.901657950133085251e-03 -9.999907016754150391e-01 -3.191709285601973534e-03
5.115700000000000108e-02 1.379650000000000043e-01 -1.331090000000000051e-01 -7.671844959259033203e-02 9.552033543586730957e-01 2.858336567878723145e-01
-6.234100000000000058e-02 5.810400000000000287e-02 -7.839699999999999447e-02 5.640045553445816040e-02 -9.690585136413574219e-01 2.403011322021484375e-01
1.196259999999999962e-01 1.518899999999999938e-02 -4.818399999999999767e-02 -4.753654822707176208e-03 -9.999679923057556152e-01 6.431936752051115036e-03
1.403870000000000118e-01 3.617100000000000176e-02 8.290000000000000493e-03 -1.693500429391860962e-01 -9.824391603469848633e-01 7.831867039203643799e-02
5.989000000000000400e-03 5.640499999999999681e-02 -7.838900000000000035e-02 -2.384682011324912310e-04 -9.999980926513671875e-01 1.950139761902391911e-03
-1.561929999999999985e-01 1.196799999999999947e-02 8.402199999999999946e-02 3.613748252391815186e-01 8.896333575248718262e-01 -2.792145609855651855e-01
-9.746100000000000596e-02 1.523099999999999975e-02 2.080600000000000158e-02 -2.787380944937467575e-04 -9.999998807907104492e-01 -4.202015115879476070e-04
2.408000000000000071e-02 4.180199999999999888e-02 -6.847799999999999720e-02 1.601526164449751377e-03 9.999892711639404297e-01 -4.342814441770315170e-03
6.195799999999999919e-02 -8.481999999999999956e-03 4.739499999999999963e-02 -1.113028302788734436e-01 -9.937709569931030273e-01 5.559506826102733612e-03
-3.793300000000000144e-02 -8.486999999999999753e-03 9.530800000000000383e-02 4.739906216855160892e-05 1.000000000000000000e+00 2.230037353001534939e-04
9.332999999999999283e-03 4.646600000000000036e-02 -8.674900000000000666e-02 -9.080751240253448486e-02 1.050309240818023682e-01 9.903143644332885742e-01
3.436100000000000265e-02 -2.107200000000000045e-02 1.564029999999999865e-01 9.192620217800140381e-02 -9.923646450042724609e-01 -8.223148435354232788e-02
-9.889199999999999380e-02 5.668700000000000128e-02 -3.995699999999999946e-02 -4.068607985973358154e-01 -2.100358456373214722e-01 -8.890158534049987793e-01
-6.866899999999999393e-02 -8.484999999999999487e-03 1.156879999999999992e-01 -4.888123658020049334e-05 1.000000000000000000e+00 2.336215402465313673e-04
1.019600000000000020e-02 1.002829999999999971e-01 -9.654600000000000681e-02 -1.208562627434730530e-01 5.229364633560180664e-01 8.437601327896118164e-01
-1.639510000000000134e-01 1.335300000000000029e-02 -5.444000000000000054e-03 8.653509616851806641e-01 1.860205680131912231e-01 4.653644263744354248e-01
3.241499999999999937e-02 3.923100000000000198e-02 7.199200000000000044e-02 1.852351997513324022e-04 -1.000000000000000000e+00 4.571872705128043890e-05
7.409999999999999920e-02 6.283900000000000596e-02 -5.290700000000000264e-02 1.377712339162826538e-01 4.710056185722351074e-01 -8.713052272796630859e-01
1.921529999999999905e-01 -2.618200000000000041e-02 4.495699999999999696e-02 -7.487384080886840820e-01 -3.827609121799468994e-01 -5.411884188652038574e-01
-5.523600000000000038e-02 4.255599999999999661e-02 -7.810899999999999788e-02 2.733849287033081055e-01 1.158238500356674194e-01 9.549060463905334473e-01
-2.402999999999999928e-02 1.099419999999999981e-01 -1.010230000000000017e-01 1.453987210988998413e-01 5.866482853889465332e-01 7.966824769973754883e-01
1.218299999999999939e-01 1.142210000000000031e-01 -6.039599999999999830e-02 1.816333979368209839e-01 -6.382331848144531250e-01 -7.481094598770141602e-01
7.478300000000000225e-02 3.921499999999999986e-02 4.933699999999999891e-02 -4.154840018600225449e-03 -9.999910593032836914e-01 -7.737116538919508457e-04
-2.944899999999999948e-02 7.463500000000000689e-02 -8.666500000000000592e-02 1.861497610807418823e-01 1.293650716543197632e-01 9.739676117897033691e-01
1.369779999999999887e-01 2.074499999999999955e-02 -3.886200000000000071e-02 -6.236296296119689941e-01 -4.869349896907806396e-01 6.115393638610839844e-01
-7.788799999999999890e-02 3.894500000000000045e-02 -8.855000000000000024e-03 -6.595553713850677013e-04 -9.997586607933044434e-01 2.195764333009719849e-02
-1.553839999999999943e-01 2.149099999999999969e-02 -1.636699999999999960e-02 8.033633232116699219e-01 -3.223974406719207764e-01 5.006667971611022949e-01
-2.611000000000000040e-03 3.922400000000000192e-02 7.027799999999999325e-02 1.852351997513324022e-04 -1.000000000000000000e+00 4.571872705128043890e-05
1.318269999999999997e-01 6.472400000000000375e-02 9.061199999999999810e-02 9.508621692657470703e-01 -8.406587876379489899e-03 -3.095003366470336914e-01
-6.475699999999999512e-02 3.869100000000000317e-02 -2.004900000000000085e-02 -6.595553713850677013e-04 -9.997586607933044434e-01 2.195764333009719849e-02
-1.612149999999999972e-01 1.357639999999999958e-01 -9.687300000000000078e-02 8.887602090835571289e-01 2.961658239364624023e-01 -3.498443663120269775e-01
-2.770600000000000146e-02 -8.479999999999999691e-03 4.237099999999999894e-02 -4.178450762992724776e-05 1.000000000000000000e+00 5.654426786350086331e-05
-8.656999999999999765e-03 3.914900000000000324e-02 -2.510599999999999984e-02 4.127497784793376923e-03 -9.998894929885864258e-01 1.428335718810558319e-02
-1.298920000000000075e-01 3.823000000000000009e-02 3.499599999999999933e-02 9.243410080671310425e-02 -9.957004785537719727e-01 6.043525412678718567e-03
-1.553400000000000059e-01 3.372200000000000197e-02 4.292100000000000082e-02 4.125877618789672852e-01 -9.109132289886474609e-01 2.896963385865092278e-03
1.035019999999999968e-01 3.024599999999999858e-02 -3.988099999999999978e-02 -8.476369976997375488e-01 1.370944380760192871e-01 -5.125589370727539062e-01
7.078900000000000470e-02 1.094180000000000014e-01 -9.205299999999999594e-02 -1.995974183082580566e-01 5.441115498542785645e-01 8.149254322052001953e-01
1.133760000000000046e-01 -1.909500000000000086e-02 1.311900000000000011e-01 -1.727699637413024902e-01 -6.241340637207031250e-01 -7.619758248329162598e-01
8.931699999999999362e-02 3.340800000000000020e-02 -3.701399999999999829e-02 -2.619118690490722656e-01 -7.360954880714416504e-01 6.241519451141357422e-01
-1.442759999999999876e-01 -1.425579999999999903e-01 3.229599999999999832e-02 7.761546876281499863e-03 9.964008927345275879e-01 8.440963178873062134e-02
7.238799999999999402e-02 -8.470999999999999364e-03 -4.367800000000000155e-02 -1.793765550246462226e-04 1.000000000000000000e+00 -1.162285625468939543e-04
-5.394899999999999696e-02 -2.162299999999999986e-02 1.412829999999999919e-01 -1.963450908660888672e-01 2.235732525587081909e-01 9.547060132026672363e-01
-1.163399999999999990e-01 3.894000000000000239e-02 6.826100000000000223e-02 4.050565510988235474e-02 -9.991742372512817383e-01 -3.182853106409311295e-03
8.418999999999999401e-03 -9.890799999999999592e-02 -8.402900000000000647e-02 -5.991162061691284180e-01 3.101159930229187012e-01 7.381651401519775391e-01
6.796800000000000064e-02 1.608449999999999880e-01 -1.349180000000000101e-01 2.208149060606956482e-02 -9.895144104957580566e-01 -1.427360624074935913e-01
1.139180000000000054e-01 1.381940000000000113e-01 -9.265700000000000325e-02 9.122501015663146973e-01 -2.091351002454757690e-01 3.522247374057769775e-01
-1.474620000000000097e-01 1.426890000000000103e-01 -1.243279999999999941e-01 7.132205963134765625e-01 5.320040583610534668e-01 -4.563858807086944580e-01
-5.969499999999999806e-02 -5.338999999999999996e-03 -8.301500000000000545e-02 2.234969437122344971e-01 -3.753334879875183105e-01 8.995409607887268066e-01
5.140999999999999737e-03 -1.494739999999999958e-01 -7.821599999999999386e-02 -5.546803474426269531e-01 4.801185056567192078e-02 -8.306771516799926758e-01
1.835269999999999957e-01 -6.228500000000000009e-02 1.504699999999999961e-02 -3.174320161342620850e-01 2.409769892692565918e-01 9.171515703201293945e-01
-1.744719999999999882e-01 1.442690000000000083e-01 -1.186799999999999938e-01 8.455575108528137207e-01 2.669356763362884521e-01 -4.623611867427825928e-01
9.966700000000000559e-02 -2.497900000000000120e-02 -5.977999999999999980e-02 4.233862161636352539e-01 2.058947533369064331e-01 -8.822423219680786133e-01
-8.767199999999999993e-02 3.602999999999999953e-02 -4.839500000000000052e-02 3.555839657783508301e-01 -9.148709177970886230e-01 1.912361532449722290e-01
2.258500000000000091e-02 1.936999999999999920e-03 1.505479999999999874e-01 -2.898500300943851471e-02 9.837509393692016602e-01 -1.771834194660186768e-01
-1.356650000000000078e-01 1.521899999999999989e-02 7.298899999999999832e-02 -2.787380944937467575e-04 -9.999998807907104492e-01 -4.202015115879476070e-04
1.249450000000000005e-01 1.522599999999999995e-02 5.641700000000000187e-02 3.743142297025769949e-04 -9.999999403953552246e-01 1.267313782591372728e-04
1.833100000000000007e-02 1.349750000000000116e-01 -1.304150000000000031e-01 -5.601927265524864197e-02 9.028699398040771484e-01 4.262484610080718994e-01
1.695540000000000103e-01 -6.461400000000000476e-02 4.514900000000000163e-02 -1.000617220997810364e-01 1.385738402605056763e-01 -9.852842092514038086e-01
1.130690000000000028e-01 1.416630000000000111e-01 -1.561809999999999865e-01 -1.009368449449539185e-01 9.231237173080444336e-01 3.710179924964904785e-01
2.472999999999999851e-02 -1.553819999999999923e-01 -9.109299999999999342e-02 -7.447236180305480957e-01 -3.492179140448570251e-02 -6.664586663246154785e-01
-1.071000000000000077e-02 1.518599999999999985e-02 7.233199999999999352e-02 2.610107767395675182e-04 -9.999999403953552246e-01 -7.053015724522992969e-05
-8.354599999999999527e-02 1.518700000000000085e-02 -3.943000000000000324e-03 1.482148771174252033e-03 -9.999940991401672363e-01 3.094757674261927605e-03
4.607399999999999690e-02 1.275380000000000125e-01 -1.127110000000000056e-01 -1.141204088926315308e-01 8.485403656959533691e-01 5.166776180267333984e-01
-4.351700000000000013e-02 -8.482999999999999222e-03 2.625100000000000003e-02 -1.793765550246462226e-04 1.000000000000000000e+00 -1.162285625468939543e-04
1.070630000000000054e-01 1.504129999999999912e-01 -1.006719999999999976e-01 -1.828193366527557373e-01 -8.294829130172729492e-01 -5.277643203735351562e-01
7.254000000000000031e-03 -8.486000000000000487e-03 8.108700000000000629e-02 4.739906216855160892e-05 1.000000000000000000e+00 2.230037353001534939e-04
1.131999999999999977e-03 3.922500000000000292e-02 3.593899999999999872e-02 5.029260137234814465e-05 -1.000000000000000000e+00 -2.206179051427170634e-04
-1.276450000000000085e-01 8.238399999999999890e-02 -6.215999999999999998e-02 3.196961879730224609e-01 3.747784197330474854e-01 8.702502250671386719e-01
-1.650139999999999940e-01 9.039000000000000160e-03 5.428800000000000292e-02 9.409061670303344727e-01 1.886495053768157959e-01 -2.812595665454864502e-01
2.100899999999999990e-02 -1.016289999999999971e-01 1.470309999999999950e-01 -8.407428264617919922e-01 2.861145138740539551e-01 -4.596628844738006592e-01
3.305000000000000299e-02 1.405230000000000090e-01 -1.520519999999999927e-01 3.943786397576332092e-02 9.660356044769287109e-01 -2.553817629814147949e-01
-4.435200000000000253e-02 1.456890000000000129e-01 -1.757730000000000126e-01 8.576797693967819214e-02 6.996929645538330078e-01 7.092767953872680664e-01
1.143779999999999936e-01 5.807899999999999868e-02 -5.188700000000000256e-02 8.090224117040634155e-02 9.967113137245178223e-01 -4.629789385944604874e-03
1.005920000000000009e-01 -1.950400000000000050e-02 1.242800000000000016e-01 4.910869896411895752e-01 2.142521291971206665e-01 8.443515896797180176e-01
5.795399999999999857e-02 1.520600000000000077e-02 4.299200000000000244e-02 2.610107767395675182e-04 -9.999999403953552246e-01 -7.053015724522992969e-05
-6.074999999999999671e-03 3.519800000000000012e-02 1.367859999999999909e-01 -9.634656831622123718e-03 -9.178476333618164062e-01 -3.968159258365631104e-01
9.076499999999999846e-02 -1.259599999999999956e-02 -6.116300000000000209e-02 4.233862161636352539e-01 2.058947533369064331e-01 -8.822423219680786133e-01
1.254109999999999947e-01 6.688800000000000301e-02 6.502900000000000347e-02 9.413155317306518555e-01 -2.835759818553924561e-01 -1.830565780401229858e-01
-5.790000000000000008e-03 -1.310709999999999931e-01 1.337139999999999995e-01 7.209747433662414551e-01 2.209015637636184692e-01 6.568089127540588379e-01
1.631599999999999995e-01 -4.250999999999999571e-03 7.826400000000000023e-02 -1.339565068483352661e-01 -9.856768250465393066e-01 -1.024541184306144714e-01
4.580000000000000195e-04 1.517830000000000013e-01 -1.809449999999999947e-01 6.860561203211545944e-03 6.528095400426536798e-05 9.999764561653137207e-01
1.374410000000000076e-01 -1.183040000000000064e-01 3.001300000000000148e-02 4.395440518856048584e-01 1.899405266158282757e-03 8.982190489768981934e-01
1.022499999999999971e-02 -3.130200000000000343e-02 -6.049100000000000310e-02 -2.559394203126430511e-02 3.768957555294036865e-01 -9.259020090103149414e-01
-1.500769999999999882e-01 2.300000000000000002e-05 8.623999999999999722e-02 8.150477409362792969e-01 3.078932762145996094e-01 -4.908145666122436523e-01
1.459260000000000002e-01 1.523200000000000075e-02 1.925999999999999978e-03 2.610107767395675182e-04 -9.999999403953552246e-01 -7.053015724522992969e-05
4.132899999999999768e-02 9.658100000000000018e-02 -9.049599999999999311e-02 -1.753131747245788574e-01 4.664190411567687988e-01 8.670170307159423828e-01
2.276600000000000151e-02 1.385329999999999895e-01 -9.568000000000000116e-02 8.227055519819259644e-02 -7.965378761291503906e-01 -5.989649295806884766e-01
-9.931600000000000150e-02 1.621360000000000023e-01 -1.390720000000000012e-01 -1.386455725878477097e-02 -9.979513287544250488e-01 -6.245721876621246338e-02
-6.538299999999999668e-02 1.523339999999999972e-01 -1.751209999999999989e-01 1.271833330392837524e-01 -1.007882803678512573e-01 9.867452383041381836e-01
-1.854339999999999877e-01 -1.617860000000000131e-01 5.108800000000000147e-02 1.283815950155258179e-01 7.912493944168090820e-01 -5.978650450706481934e-01
5.804600000000000037e-02 3.923499999999999904e-02 5.528099999999999681e-02 1.852351997513324022e-04 -1.000000000000000000e+00 4.571872705128043890e-05
1.022789999999999949e-01 1.389890000000000014e-01 -1.198749999999999954e-01 -2.089573293924331665e-01 9.300134181976318359e-01 3.023439943790435791e-01
-8.786199999999999566e-02 3.918900000000000161e-02 4.769899999999999834e-02 3.168152645230293274e-03 -9.999945163726806641e-01 -9.863948216661810875e-04
-1.270840000000000025e-01 1.522599999999999995e-02 -1.731399999999999953e-02 1.105122719309292734e-04 -9.999999403953552246e-01 2.208129153586924076e-04
-5.496199999999999697e-02 1.518100000000000005e-02 1.113449999999999995e-01 -2.787380944937467575e-04 -9.999998807907104492e-01 -4.202015115879476070e-04
-7.566900000000000015e-02 1.519700000000000044e-02 -3.065500000000000169e-02 -5.557847674936056137e-03 -9.999682903289794922e-01 -5.702362395823001862e-03
-1.190800000000000018e-02 -7.937299999999999911e-02 1.403169999999999973e-01 7.871825098991394043e-01 -6.189843639731407166e-02 6.136059761047363281e-01
-1.326300000000000048e-02 8.747499999999999720e-02 -6.445099999999999441e-02 -2.267231792211532593e-02 -3.566162288188934326e-01 -9.339758157730102539e-01
-8.655999999999999805e-02 -8.470999999999999364e-03 -4.928899999999999948e-02 7.003241626080125570e-05 1.000000000000000000e+00 1.221989659825339913e-04
-3.454900000000000332e-02 -8.482999999999999222e-03 1.187700000000000040e-02 -1.793765550246462226e-04 1.000000000000000000e+00 -1.162285625468939543e-04
4.829100000000000059e-02 -8.486000000000000487e-03 7.158799999999999886e-02 4.739906216855160892e-05 1.000000000000000000e+00 2.230037353001534939e-04
6.740699999999999470e-02 1.407110000000000027e-01 -1.387299999999999922e-01 -6.025213003158569336e-02 9.631832838058471680e-01 2.620070278644561768e-01
-1.196559999999999985e-01 1.412720000000000087e-01 -1.336199999999999888e-01 -5.316255614161491394e-02 9.505399465560913086e-01 -3.060189485549926758e-01
1.355540000000000078e-01 1.522599999999999995e-02 -2.488100000000000034e-02 -6.176840397529304028e-04 -9.999994635581970215e-01 8.357578772120177746e-04
2.826100000000000140e-02 1.600910000000000111e-01 -1.383040000000000103e-01 1.898455619812011719e-02 -9.685673713684082031e-01 -2.480258196592330933e-01
8.641400000000000470e-02 -8.470999999999999364e-03 -2.664400000000000102e-02 -4.178450762992724776e-05 1.000000000000000000e+00 5.654426786350086331e-05
-1.206009999999999999e-01 1.014400000000000024e-02 1.148480000000000056e-01 4.733782112598419189e-01 -2.017703950405120850e-01 -8.574391007423400879e-01
-1.934919999999999973e-01 -1.473500000000000087e-01 3.713500000000000134e-02 2.136551588773727417e-01 -9.674068093299865723e-01 -1.359246671199798584e-01
-1.317250000000000087e-01 -2.037699999999999928e-02 1.021119999999999944e-01 -6.581793427467346191e-01 2.130597680807113647e-01 7.220841050148010254e-01
-1.224409999999999943e-01 1.522100000000000015e-02 5.977699999999999680e-02 -2.787380944937467575e-04 -9.999998807907104492e-01 -4.202015115879476070e-04
-1.199000000000000066e-01 4.425599999999999673e-02 -5.569500000000000145e-02 3.757713437080383301e-01 1.616778969764709473e-01 9.124999642372131348e-01
4.248000000000000040e-03 -1.625890000000000113e-01 1.460279999999999911e-01 1.368068717420101166e-02 9.996973276138305664e-01 2.044832706451416016e-02
-3.042100000000000012e-02 1.519999999999999997e-02 -7.525500000000000245e-02 -5.557847674936056137e-03 -9.999682903289794922e-01 -5.702362395823001862e-03
2.137000000000000011e-03 -1.625860000000000083e-01 1.679049999999999987e-01 -1.854514237493276596e-03 9.999980926513671875e-01 -6.216467008925974369e-04
-1.138190000000000035e-01 2.078800000000000092e-02 -4.402799999999999769e-02 8.682033419609069824e-01 1.356563270092010498e-01 -4.773053228855133057e-01
1.567439999999999944e-01 3.303799999999999792e-02 2.419100000000000070e-02 -3.490341603755950928e-01 -9.317873120307922363e-01 9.973773360252380371e-02
-9.370900000000000063e-02 1.519200000000000064e-02 1.099500000000000061e-01 -2.787380944937467575e-04 -9.999998807907104492e-01 -4.202015115879476070e-04
-1.119999999999999989e-02 1.519099999999999964e-02 5.719199999999999978e-02 -2.787380944937467575e-04 -9.999998807907104492e-01 -4.202015115879476070e-04
1.599690000000000001e-01 3.159100000000000102e-02 4.999699999999999978e-02 -3.898813426494598389e-01 -9.197825789451599121e-01 -4.463749006390571594e-02
-1.617949999999999944e-01 1.430220000000000102e-01 -1.271009999999999918e-01 4.481224343180656433e-02 9.895088076591491699e-01 1.373467445373535156e-01
1.320560000000000067e-01 1.429920000000000080e-01 -1.491999999999999993e-01 -2.431575953960418701e-01 9.617156982421875000e-01 1.264014691114425659e-01
-5.184000000000000240e-03 7.124300000000000077e-02 -6.243300000000000238e-02 -2.424395270645618439e-02 6.181535869836807251e-02 -9.977931380271911621e-01
-7.521999999999999520e-02 3.921700000000000186e-02 5.604399999999999660e-02 5.029260137234814465e-05 -1.000000000000000000e+00 -2.206179051427170634e-04
-1.004860000000000059e-01 -1.075170000000000015e-01 -2.645600000000000035e-02 3.652599826455116272e-02 9.987027645111083984e-01 3.547782078385353088e-02
2.956599999999999853e-02 1.513699999999999941e-02 -7.443299999999999916e-02 1.482148771174252033e-03 -9.999940991401672363e-01 3.094757674261927605e-03
1.169800000000000006e-02 1.519299999999999991e-02 5.063700000000000145e-02 2.610107767395675182e-04 -9.999999403953552246e-01 -7.053015724522992969e-05
9.038999999999999813e-02 1.266800000000000044e-02 -6.941100000000000048e-02 -2.953752577304840088e-01 6.048975586891174316e-01 7.394946813583374023e-01
8.852500000000000646e-02 6.386799999999999422e-02 -7.121600000000000152e-02 2.082689106464385986e-01 1.093436554074287415e-01 9.719403386116027832e-01
-9.121000000000000635e-03 -9.106499999999999317e-02 1.358229999999999993e-01 6.096667051315307617e-01 -1.288217008113861084e-01 7.821198701858520508e-01
7.041799999999999449e-02 -6.091000000000000060e-03 -8.052600000000000036e-02 -3.372826576232910156e-01 2.853181213140487671e-02 9.409709572792053223e-01
7.169399999999999384e-02 3.906699999999999756e-02 9.539699999999999569e-02 -1.772366464138031006e-02 -9.997870326042175293e-01 -1.056903973221778870e-02
-3.871600000000000041e-02 -8.486000000000000487e-03 -3.243200000000000249e-02 2.798868517857044935e-04 9.999999403953552246e-01 1.813550625229254365e-04
-9.857899999999999996e-02 -8.753999999999999629e-03 1.302379999999999927e-01 3.484459519386291504e-01 -5.010489225387573242e-01 -7.921712994575500488e-01
1.215450000000000003e-01 -1.030380000000000046e-01 7.302999999999999596e-03 1.647191941738128662e-01 -9.863342046737670898e-01 -3.518205136060714722e-03
-1.480110000000000037e-01 -8.505999999999999672e-03 3.847400000000000125e-02 -2.087340690195560455e-03 -9.999962449073791504e-01 -1.780477934516966343e-03
7.530100000000000682e-02 1.204950000000000049e-01 -6.843100000000000571e-02 1.057518348097801208e-01 -5.861015915870666504e-01 -8.033065795898437500e-01
1.551009999999999889e-01 -3.400899999999999757e-02 1.169700000000000080e-02 1.593945734202861786e-02 1.154771074652671814e-01 9.931822419166564941e-01
9.945400000000000074e-02 -8.474000000000000629e-03 1.048240000000000005e-01 -4.888123658020049334e-05 1.000000000000000000e+00 2.336215402465313673e-04
8.380899999999999461e-02 -1.667599999999999985e-02 1.307079999999999909e-01 3.685327172279357910e-01 2.104797959327697754e-01 9.054732918739318848e-01
8.795999999999999999e-03 -5.402200000000000057e-02 -1.033219999999999972e-01 -1.200578585267066956e-01 8.172206878662109375e-01 5.636811852455139160e-01
8.348099999999999965e-02 8.588500000000000301e-02 -7.613699999999999635e-02 -2.393325716257095337e-01 2.869959473609924316e-01 9.275522828102111816e-01
-1.467930000000000068e-01 -2.596000000000000044e-02 8.714800000000000324e-02 -7.720956206321716309e-01 2.591648399829864502e-01 5.802602171897888184e-01
-1.237399999999999958e-02 -8.486000000000000487e-03 -4.292300000000000282e-02 1.670539975166320801e-01 -3.777666389942169189e-01 9.107059240341186523e-01
1.624539999999999873e-01 1.206999999999999957e-03 6.559500000000000053e-02 -9.485865235328674316e-01 3.083281219005584717e-02 -3.150126039981842041e-01
-1.020329999999999987e-01 -8.472999999999999629e-03 -2.052800000000000111e-02 7.003241626080125570e-05 1.000000000000000000e+00 1.221989659825339913e-04
-1.165839999999999932e-01 -8.484000000000000222e-03 7.513699999999999546e-02 7.003241626080125570e-05 1.000000000000000000e+00 1.221989659825339913e-04
7.198999999999999670e-03 -8.481000000000000691e-03 1.136420000000000069e-01 -4.888123658020049334e-05 1.000000000000000000e+00 2.336215402465313673e-04
-2.727699999999999916e-02 3.852900000000000075e-02 -4.150800000000000323e-02 4.058592021465301514e-02 -9.964634776115417480e-01 7.357516139745712280e-02
-6.181199999999999889e-02 3.922300000000000092e-02 3.240300000000000125e-02 5.029260137234814465e-05 -1.000000000000000000e+00 -2.206179051427170634e-04
1.668999999999999997e-02 1.620890000000000108e-01 -1.495029999999999970e-01 -5.429488955996930599e-04 -9.992136955261230469e-01 -3.964459523558616638e-02
-8.057599999999999485e-02 3.916499999999999843e-02 7.863199999999999357e-02 9.955398738384246826e-03 -9.995082020759582520e-01 -2.973702177405357361e-02
-1.181159999999999988e-01 4.997700000000000059e-02 -4.297999999999999737e-02 8.606258630752563477e-01 1.385022699832916260e-01 -4.900410175323486328e-01
-8.591000000000000025e-02 1.662100000000000036e-02 -6.825699999999999823e-02 9.987218976020812988e-01 -0.000000000000000000e+00 -5.054260790348052979e-02
1.034240000000000020e-01 1.521899999999999989e-02 2.859599999999999989e-02 2.610107767395675182e-04 -9.999999403953552246e-01 -7.053015724522992969e-05
5.699800000000000005e-02 9.119199999999999529e-02 -8.491300000000000237e-02 -2.299776971340179443e-01 3.945320248603820801e-01 8.896374106407165527e-01
-8.211100000000000343e-02 -8.484999999999999487e-03 6.966400000000000370e-02 -1.793765550246462226e-04 1.000000000000000000e+00 -1.162285625468939543e-04
9.751799999999999358e-02 -1.048499999999999953e-02 1.321809999999999929e-01 -3.753922879695892334e-01 -5.015305280685424805e-01 -7.794535160064697266e-01
2.366100000000000148e-02 1.520799999999999930e-02 -5.113999999999999622e-03 -2.787380944937467575e-04 -9.999998807907104492e-01 -4.202015115879476070e-04
-5.528000000000000275e-02 -8.488000000000000753e-03 1.307339999999999891e-01 -4.888123658020049334e-05 1.000000000000000000e+00 2.336215402465313673e-04
-5.287700000000000039e-02 -8.488000000000000753e-03 1.014390000000000014e-01 -1.249660999746993184e-04 9.999998211860656738e-01 -5.879421951249241829e-04
1.202450000000000047e-01 -1.029820000000000041e-01 -1.200599999999999931e-02 -2.470711916685104370e-01 -9.491454362869262695e-01 1.951377391815185547e-01
5.992999999999999716e-02 1.520400000000000050e-02 7.267600000000000449e-02 2.610107767395675182e-04 -9.999999403953552246e-01 -7.053015724522992969e-05
1.436129999999999907e-01 4.686799999999999994e-02 1.172799999999999954e-01 1.965803280472755432e-02 9.996801018714904785e-01 1.591431349515914917e-02
3.793900000000000050e-02 -8.479000000000000425e-03 1.133569999999999994e-01 -4.888123658020049334e-05 1.000000000000000000e+00 2.336215402465313673e-04
3.358599999999999780e-02 1.266930000000000001e-01 -1.137459999999999999e-01 -4.971948638558387756e-02 8.519207835197448730e-01 5.213050246238708496e-01
1.924190000000000067e-01 -2.338900000000000007e-02 1.717099999999999876e-02 -8.448548316955566406e-01 -3.113892972469329834e-01 4.350367784500122070e-01
-1.246430000000000038e-01 -2.869800000000000129e-02 1.304539999999999866e-01 -1.754748672246932983e-01 -3.542348742485046387e-01 -9.185457229614257812e-01
1.157299999999999995e-01 9.745600000000000096e-02 -7.597900000000000487e-02 -2.519946396350860596e-01 4.715720713138580322e-01 8.450552821159362793e-01
1.637049999999999894e-01 6.583000000000000310e-03 4.557000000000000287e-03 -8.939503431320190430e-01 -8.685769885778427124e-02 4.396686255931854248e-01
3.848300000000000332e-02 2.974699999999999914e-02 1.436939999999999884e-01 -7.980709522962570190e-02 -7.485605478286743164e-01 -6.582460999488830566e-01
4.168299999999999783e-02 1.246180000000000065e-01 -7.854700000000000570e-02 8.693856000900268555e-02 -6.889601349830627441e-01 -7.195662856101989746e-01
-1.708210000000000006e-01 -1.626080000000000025e-01 4.163000000000000034e-02 -5.392461025621742010e-05 9.999988079071044922e-01 1.540036057122051716e-03
8.336000000000000354e-02 5.634100000000000219e-02 -5.961700000000000332e-02 5.554183371714316308e-05 -9.999534487724304199e-01 -9.650929830968379974e-03
-3.912100000000000299e-02 -2.195499999999999882e-02 -7.743099999999999983e-02 -1.051035523414611816e-01 2.615884244441986084e-01 -9.594398140907287598e-01
1.541999999999999968e-03 -2.206899999999999834e-02 -1.019049999999999956e-01 -1.294180452823638916e-01 -4.526566565036773682e-01 8.822430968284606934e-01
-3.316299999999999804e-02 1.621130000000000071e-01 -1.611160000000000092e-01 2.302410546690225601e-03 -9.976832866668701172e-01 6.799046695232391357e-02
9.832599999999999674e-02 -8.472999999999999629e-03 4.499999999999999877e-04 4.739906216855160892e-05 1.000000000000000000e+00 2.230037353001534939e-04
-5.840999999999999838e-03 -3.930199999999999666e-02 1.306380000000000041e-01 2.708351612091064453e-02 4.604781866073608398e-01 8.872577548027038574e-01
-1.930189999999999961e-01 -1.626029999999999975e-01 3.287199999999999844e-02 2.156564965844154358e-03 9.999946951866149902e-01 2.430466935038566589e-03
-9.421599999999999420e-02 -2.765600000000000003e-02 1.289780000000000093e-01 -4.272938966751098633e-01 2.040924727916717529e-01 8.807758688926696777e-01
6.000300000000000078e-02 3.923700000000000104e-02 9.150800000000000600e-02 1.852351997513324022e-04 -1.000000000000000000e+00 4.571872705128043890e-05
6.799499999999999988e-02 -8.488000000000000753e-03 7.559599999999999653e-02 -1.249660999746993184e-04 9.999998211860656738e-01 -5.879421951249241829e-04
1.192700000000000010e-02 -8.481999999999999956e-03 6.135899999999999688e-02 4.739906216855160892e-05 1.000000000000000000e+00 2.230037353001534939e-04
-1.007389999999999952e-01 -8.474999999999999895e-03 -3.644000000000000104e-03 7.003241626080125570e-05 1.000000000000000000e+00 1.221989659825339913e-04
1.494969999999999910e-01 -1.102500000000000008e-02 9.380399999999999849e-02 -6.306976675987243652e-01 -5.600513219833374023e-01 -5.371805429458618164e-01
1.129720000000000030e-01 -8.472000000000000364e-03 9.980600000000000582e-02 -4.888123658020049334e-05 1.000000000000000000e+00 2.336215402465313673e-04
1.895910000000000095e-01 -5.331999999999999934e-02 1.231200000000000003e-02 -4.846234917640686035e-01 3.481406569480895996e-01 8.024575710296630859e-01
-5.271599999999999897e-02 1.517399999999999999e-02 1.267629999999999868e-01 -2.787380944937467575e-04 -9.999998807907104492e-01 -4.202015115879476070e-04
1.743059999999999887e-01 -9.270100000000000562e-02 3.780499999999999833e-02 0.000000000000000000e+00 0.000000000000000000e+00 0.000000000000000000e+00
8.733599999999999697e-02 1.124509999999999954e-01 -6.293500000000000483e-02 -1.625976115465164185e-01 -4.261800646781921387e-01 -8.899059295654296875e-01
-1.110180000000000056e-01 2.616299999999999876e-02 -5.800099999999999700e-02 4.475577473640441895e-01 9.521777927875518799e-02 8.891713023185729980e-01
4.026799999999999824e-02 1.122620000000000007e-01 -9.999500000000000055e-02 -1.047727912664413452e-01 5.550786256790161133e-01 8.251729607582092285e-01
-2.231899999999999856e-02 1.522100000000000015e-02 -5.036999999999999811e-03 -2.787380944937467575e-04 -9.999998807907104492e-01 -4.202015115879476070e-04
1.505450000000000121e-01 -6.637700000000000544e-02 3.658299999999999746e-02 8.447648882865905762e-01 -2.456959486007690430e-01 -4.754007160663604736e-01
1.427019999999999955e-01 1.316009999999999958e-01 -9.137199999999999489e-02 -9.180541038513183594e-01 1.092822924256324768e-01 -3.810958862304687500e-01
3.020199999999999968e-02 1.521699999999999962e-02 -3.177599999999999869e-02 -2.787380944937467575e-04 -9.999998807907104492e-01 -4.202015115879476070e-04
5.847100000000000214e-02 -2.519899999999999918e-02 -8.851199999999999346e-02 1.011472195386886597e-01 9.819259047508239746e-01 1.599711179733276367e-01
-6.550000000000000266e-03 -2.126099999999999865e-02 -5.680099999999999733e-02 -2.907132916152477264e-02 2.004975527524948120e-01 -9.792627692222595215e-01
-2.386999999999999799e-03 -1.543229999999999880e-01 -7.163799999999999335e-02 -8.533709049224853516e-01 2.385935485363006592e-01 -4.634988605976104736e-01
1.228630000000000000e-01 3.071499999999999925e-02 1.093480000000000008e-01 8.960684537887573242e-01 -4.030370712280273438e-01 -1.860711574554443359e-01
-1.202030000000000043e-01 1.212749999999999939e-01 -8.086799999999999544e-02 -8.733154535293579102e-01 -1.278501003980636597e-01 4.700792729854583740e-01
1.168649999999999967e-01 -8.477999999999999425e-03 1.906499999999999861e-02 4.739906216855160892e-05 1.000000000000000000e+00 2.230037353001534939e-04
7.881100000000000605e-02 2.320300000000000140e-02 -4.643400000000000305e-02 3.438068926334381104e-01 -9.115388989448547363e-01 -2.255962640047073364e-01
-1.493450000000000055e-01 1.277999999999999969e-01 -7.565600000000000103e-02 8.777730464935302734e-01 1.301285773515701294e-01 -4.610651433467864990e-01
-8.280999999999999472e-02 1.115229999999999971e-01 -8.985600000000000531e-02 1.973123699426651001e-01 6.218881607055664062e-01 7.578409910202026367e-01
-1.733449999999999991e-01 -1.480899999999999925e-02 5.554800000000000015e-02 -1.934959925711154938e-02 -7.596515119075775146e-02 -9.969227313995361328e-01
4.694500000000000062e-02 -1.961699999999999902e-02 -8.944799999999999973e-02 -3.866004571318626404e-02 -9.947771430015563965e-01 9.446617215871810913e-02
-1.563110000000000055e-01 1.408629999999999882e-01 -8.489800000000000124e-02 8.776750564575195312e-01 1.499564647674560547e-01 -4.551917314529418945e-01
-1.199920000000000014e-01 6.112299999999999678e-02 -4.312499999999999667e-02 8.606258630752563477e-01 1.385022699832916260e-01 -4.900410175323486328e-01
2.130299999999999902e-02 -1.009700000000000007e-02 -6.431599999999999817e-02 -9.956802129745483398e-01 -7.406127452850341797e-02 5.599882081151008606e-02
-4.381199999999999678e-02 2.917399999999999854e-02 -7.489400000000000224e-02 1.286699175834655762e-01 -7.893185019493103027e-01 6.003501415252685547e-01
-8.391400000000000248e-02 -8.474999999999999895e-03 -2.510700000000000084e-02 2.798868517857044935e-04 9.999999403953552246e-01 1.813550625229254365e-04
4.410900000000000237e-02 3.580300000000000149e-02 1.300499999999999989e-01 -3.436504676938056946e-02 -9.748886823654174805e-01 -2.200252264738082886e-01
-2.370500000000000038e-02 1.517899999999999978e-02 1.191789999999999933e-01 2.610107767395675182e-04 -9.999999403953552246e-01 -7.053015724522992969e-05
8.902400000000000591e-02 1.626049999999999995e-01 -1.488299999999999901e-01 8.403557352721691132e-03 -9.989638924598693848e-01 -4.472701624035835266e-02
2.405499999999999999e-02 -8.481999999999999956e-03 1.219269999999999937e-01 -4.888123658020049334e-05 1.000000000000000000e+00 2.336215402465313673e-04
-1.366620000000000057e-01 4.876799999999999885e-02 7.339099999999999790e-02 -7.759916037321090698e-02 7.522317171096801758e-01 6.543132066726684570e-01
-6.442000000000000504e-02 -1.044950000000000045e-01 1.178560000000000024e-01 3.884891569614410400e-01 -0.000000000000000000e+00 -9.214532971382141113e-01
-1.221000000000000080e-03 -8.482999999999999222e-03 -3.339199999999999807e-02 -1.793765550246462226e-04 1.000000000000000000e+00 -1.162285625468939543e-04
-8.193100000000000382e-02 1.605969999999999898e-01 -1.643199999999999938e-01 3.741046413779258728e-02 -9.685387015342712402e-01 2.460349500179290771e-01
-1.248549999999999938e-01 -1.595500000000000043e-02 -5.527499999999999775e-02 -6.113374233245849609e-02 -9.722852706909179688e-01 2.256634682416915894e-01
-1.517499999999999960e-01 3.028000000000000136e-02 -4.550000000000000225e-03 4.086544811725616455e-01 -8.862683176994323730e-01 2.180136144161224365e-01
3.537999999999999912e-03 1.519099999999999964e-02 1.403020000000000100e-01 3.743142297025769949e-04 -9.999999403953552246e-01 1.267313782591372728e-04
1.722600000000000173e-02 -8.479999999999999691e-03 5.147899999999999698e-02 4.739906216855160892e-05 1.000000000000000000e+00 2.230037353001534939e-04
-1.190390000000000059e-01 -1.050579999999999986e-01 7.609999999999999577e-03 -9.223905801773071289e-01 0.000000000000000000e+00 -3.862584531307220459e-01
6.965999999999999970e-03 1.619460000000000066e-01 -1.641640000000000044e-01 -1.314990222454071045e-03 -9.964982867240905762e-01 8.360318839550018311e-02
1.227329999999999949e-01 -1.797999999999999945e-02 1.250400000000000122e-01 7.678810507059097290e-02 -6.689468026161193848e-01 -7.393333315849304199e-01
1.342299999999999882e-01 5.878099999999999992e-02 6.126899999999999707e-02 -1.351779419928789139e-02 9.988547563552856445e-01 -4.589537531137466431e-02
-5.409999999999999878e-03 1.618910000000000071e-01 -1.650089999999999890e-01 -1.314990222454071045e-03 -9.964982867240905762e-01 8.360318839550018311e-02
-1.327389999999999959e-01 1.296100000000000030e-02 -4.431800000000000322e-02 6.333567500114440918e-01 2.124169766902923584e-01 7.441359162330627441e-01
-1.332399999999999973e-01 2.174600000000000144e-02 1.258180000000000132e-01 1.158837303519248962e-01 7.913607358932495117e-01 -6.002659201622009277e-01
-6.071700000000000014e-02 3.922799999999999898e-02 1.228899999999999958e-02 5.029260137234814465e-05 -1.000000000000000000e+00 -2.206179051427170634e-04
3.556900000000000339e-02 -8.486000000000000487e-03 7.512499999999999734e-02 4.739906216855160892e-05 1.000000000000000000e+00 2.230037353001534939e-04
1.107709999999999945e-01 3.497499999999999915e-02 -2.770999999999999852e-02 -1.132647916674613953e-01 -9.332056641578674316e-01 3.410252630710601807e-01
7.922200000000000075e-02 -8.477999999999999425e-03 3.025699999999999917e-02 4.739906216855160892e-05 1.000000000000000000e+00 2.230037353001534939e-04
-1.693570000000000075e-01 -5.875899999999999873e-02 2.067400000000000140e-02 2.363464422523975372e-02 1.862877905368804932e-01 9.822109341621398926e-01
7.650200000000000056e-02 3.721700000000000008e-02 1.160209999999999991e-01 -7.813137769699096680e-02 -9.724903106689453125e-01 -2.194495052099227905e-01
1.162910000000000055e-01 1.522399999999999969e-02 -3.896999999999999856e-03 2.610107767395675182e-04 -9.999999403953552246e-01 -7.053015724522992969e-05
4.096600000000000241e-02 1.519999999999999997e-02 9.782899999999999929e-02 3.743142297025769949e-04 -9.999999403953552246e-01 1.267313782591372728e-04
-7.721699999999999398e-02 8.698200000000000376e-02 -4.810199999999999892e-02 -8.728886023163795471e-03 -1.912105381488800049e-01 -9.815102219581604004e-01
1.965119999999999922e-01 -5.580899999999999750e-02 2.532200000000000076e-02 -8.689359426498413086e-01 3.956823945045471191e-01 2.972975075244903564e-01
-4.196300000000000030e-02 1.517699999999999952e-02 1.105809999999999987e-01 -2.787380944937467575e-04 -9.999998807907104492e-01 -4.202015115879476070e-04
-4.183599999999999819e-02 1.514899999999999927e-02 -5.527200000000000168e-02 -5.557847674936056137e-03 -9.999682903289794922e-01 -5.702362395823001862e-03
6.475300000000000500e-02 5.574899999999999994e-02 -7.622299999999999909e-02 -2.869200408458709717e-01 6.498406082391738892e-02 9.557478427886962891e-01
9.716600000000000237e-02 2.655599999999999974e-02 1.296609999999999985e-01 -3.261387646198272705e-01 -6.937265992164611816e-01 -6.421657800674438477e-01
9.889799999999999980e-02 1.521999999999999915e-02 8.939500000000000224e-02 3.743142297025769949e-04 -9.999999403953552246e-01 1.267313782591372728e-04
-1.002159999999999995e-01 1.522800000000000022e-02 -2.753699999999999898e-02 6.426930194720625877e-04 -9.999995827674865723e-01 6.594042642973363400e-04
3.065800000000000122e-02 1.214569999999999955e-01 -7.705599999999999949e-02 1.251840591430664062e-01 -5.508900880813598633e-01 -8.251357674598693848e-01
-4.802499999999999825e-02 6.892099999999999616e-02 -8.220800000000000329e-02 2.420081496238708496e-01 1.085807159543037415e-01 9.641795754432678223e-01
-1.377770000000000106e-01 1.635199999999999848e-02 -3.507199999999999901e-02 6.919050216674804688e-01 2.016088366508483887e-01 6.932685375213623047e-01
-5.943999999999999631e-03 -8.448100000000000054e-02 1.572659999999999891e-01 2.989282011985778809e-01 3.235891461372375488e-01 -8.977371454238891602e-01
1.521720000000000017e-01 -1.147630000000000039e-01 4.021199999999999775e-02 1.147025153040885925e-01 7.071834802627563477e-02 -9.908795356750488281e-01
1.182890000000000053e-01 2.024999999999999890e-03 1.189169999999999949e-01 -1.257593035697937012e-01 9.684277176856994629e-01 -2.152495682239532471e-01
-6.779699999999999616e-02 1.703899999999999859e-02 1.410450000000000037e-01 -8.866920322179794312e-02 -9.889298081398010254e-01 -1.189775317907333374e-01
-9.033099999999999463e-02 1.601279999999999926e-01 -1.251730000000000065e-01 -5.560291185975074768e-02 -9.734549522399902344e-01 -2.220219820737838745e-01
6.159999999999999677e-03 -4.057999999999999802e-02 1.722009999999999930e-01 1.509000211954116821e-01 3.008158504962921143e-01 -9.416682124137878418e-01
-8.658699999999999730e-02 3.613800000000000345e-02 -3.175599999999999951e-02 2.211757749319076538e-01 -8.818680644035339355e-01 4.164012372493743896e-01
1.482219999999999926e-01 6.952400000000000246e-02 7.918699999999999350e-02 6.509643979370594025e-03 -9.977312684059143066e-01 6.700678169727325439e-02
8.064999999999999253e-03 -8.707600000000000062e-02 -8.931799999999999462e-02 -5.722646117210388184e-01 3.207074403762817383e-01 7.547582387924194336e-01
1.638459999999999916e-01 -8.915700000000000014e-02 4.227700000000000208e-02 -1.000617220997810364e-01 1.385738402605056763e-01 -9.852842092514038086e-01
1.779870000000000063e-01 -1.814199999999999841e-02 1.045199999999999949e-02 2.225162833929061890e-02 -3.602359443902969360e-02 9.991031885147094727e-01
-1.441260000000000041e-01 1.510120000000000073e-01 -1.169850000000000056e-01 -8.627465963363647461e-01 -2.368971109390258789e-01 4.467079937458038330e-01
-1.018069999999999947e-01 1.445039999999999936e-01 -1.643519999999999981e-01 1.196005418896675110e-01 7.946448922157287598e-01 5.951766371726989746e-01
6.761799999999999755e-02 9.829400000000000637e-02 -5.604399999999999660e-02 2.276789993047714233e-01 -4.475080966949462891e-01 -8.648114204406738281e-01
-5.194100000000000106e-02 -2.384000000000000008e-02 -7.867599999999999594e-02 -7.398892194032669067e-02 9.964706301689147949e-01 3.964733332395553589e-02
-1.045829999999999954e-01 -2.285999999999999838e-03 -5.847700000000000120e-02 3.764962553977966309e-01 -5.669780969619750977e-01 7.326570749282836914e-01
6.518000000000000183e-02 -8.470999999999999364e-03 -3.367699999999999860e-02 -4.178450762992724776e-05 1.000000000000000000e+00 5.654426786350086331e-05
-1.804860000000000075e-01 -2.440399999999999861e-02 1.247299999999999971e-02 1.250295061618089676e-02 9.856024980545043945e-01 1.686159819364547729e-01
1.311060000000000003e-01 -2.287199999999999997e-02 1.154799999999999924e-02 2.921610176563262939e-01 1.696186065673828125e-01 9.412074685096740723e-01
1.191500000000000059e-01 1.522399999999999969e-02 1.287600000000000029e-02 2.610107767395675182e-04 -9.999999403953552246e-01 -7.053015724522992969e-05
1.584510000000000085e-01 -1.288590000000000013e-01 3.897099999999999870e-02 -2.937043271958827972e-02 1.343248970806598663e-02 -9.994783401489257812e-01
-6.027000000000000239e-03 -1.496450000000000002e-01 1.451570000000000082e-01 0.000000000000000000e+00 0.000000000000000000e+00 0.000000000000000000e+00
-1.951699999999999963e-02 7.865400000000000169e-02 -6.145599999999999674e-02 -1.776049137115478516e-01 -1.987800598144531250e-01 -9.638168811798095703e-01
-3.353500000000000231e-02 4.515000000000000263e-02 -8.400599999999999734e-02 2.175638228654861450e-01 9.103608131408691406e-02 9.717913269996643066e-01
1.280600000000000072e-01 -8.562000000000000166e-03 3.560900000000000176e-02 1.167644783854484558e-01 -9.931423068046569824e-01 -5.869321059435606003e-03
2.173500000000000085e-02 3.176099999999999757e-02 -7.400099999999999734e-02 -2.806583978235721588e-02 -9.244169592857360840e-01 3.803493082523345947e-01
-1.364399999999999988e-02 -8.484999999999999487e-03 -2.951499999999999957e-02 -1.793765550246462226e-04 1.000000000000000000e+00 -1.162285625468939543e-04
-1.221099999999999963e-02 -1.624450000000000061e-01 1.614079999999999959e-01 1.315544992685317993e-01 9.907861948013305664e-01 -3.218821808695793152e-02
7.197599999999999831e-02 -8.472999999999999629e-03 5.510000000000000141e-03 -4.178450762992724776e-05 1.000000000000000000e+00 5.654426786350086331e-05
-1.036149999999999988e-01 7.523699999999999832e-02 -6.796399999999999664e-02 2.186777740716934204e-01 1.625580489635467529e-01 9.621616005897521973e-01
1.642810000000000104e-01 4.972000000000000031e-02 1.257320000000000104e-01 0.000000000000000000e+00 0.000000000000000000e+00 0.000000000000000000e+00
6.136300000000000088e-02 1.521100000000000056e-02 -2.296199999999999977e-02 2.610107767395675182e-04 -9.999999403953552246e-01 -7.053015724522992969e-05
-1.161930000000000046e-01 1.277900000000000043e-02 -5.583799999999999875e-02 4.094347357749938965e-01 6.126609444618225098e-01 6.760249733924865723e-01
1.237850000000000061e-01 6.400599999999999346e-02 -8.115999999999999950e-03 9.895841479301452637e-01 -4.284251853823661804e-02 -1.374324709177017212e-01
-1.354289999999999938e-01 1.247780000000000000e-01 -6.243200000000000138e-02 -2.115414440631866455e-01 -7.016600370407104492e-01 -6.803847551345825195e-01
-7.088899999999999368e-02 1.363189999999999957e-01 -1.243910000000000016e-01 9.792138636112213135e-02 9.150500893592834473e-01 3.912732303142547607e-01
-1.822080000000000088e-01 -1.474800000000000069e-02 2.149399999999999922e-02 5.793767571449279785e-01 -6.848467588424682617e-01 4.419361054897308350e-01
-1.652990000000000015e-01 -1.689299999999999830e-02 7.890800000000000591e-02 6.788796186447143555e-01 -5.939911007881164551e-01 -4.316214025020599365e-01
1.493899999999999915e-02 9.078899999999999471e-02 -9.181599999999999484e-02 -1.019802391529083252e-01 2.096711546182632446e-01 9.724392294883728027e-01
3.431399999999999728e-02 -8.311999999999999944e-03 1.534659999999999913e-01 -1.252609044313430786e-01 7.347153425216674805e-01 -6.667106747627258301e-01
1.685470000000000024e-01 1.126699999999999924e-02 2.373899999999999968e-02 -1.384961754083633423e-01 9.900035262107849121e-01 2.667975053191184998e-02
5.498000000000000109e-02 3.923399999999999804e-02 1.130600000000000008e-02 5.029260137234814465e-05 -1.000000000000000000e+00 -2.206179051427170634e-04
-6.913500000000000201e-02 -8.486999999999999753e-03 2.068800000000000153e-02 2.798868517857044935e-04 9.999999403953552246e-01 1.813550625229254365e-04
-1.061060000000000059e-01 3.902599999999999819e-02 2.085599999999999954e-02 2.048100717365741730e-02 -9.997826218605041504e-01 3.896655514836311340e-03
-1.210679999999999951e-01 5.802399999999999919e-02 -2.862200000000000161e-02 -1.849660277366638184e-01 9.803503751754760742e-01 -6.856197863817214966e-02
-4.536699999999999761e-02 3.915300000000000030e-02 -1.419800000000000055e-02 4.127497784793376923e-03 -9.998894929885864258e-01 1.428335718810558319e-02
1.165140000000000065e-01 8.633499999999999508e-02 -4.843700000000000089e-02 -9.017096757888793945e-01 1.648478806018829346e-01 -3.996809422969818115e-01
-1.579919999999999936e-01 -5.394700000000000190e-02 5.297400000000000025e-02 -4.881641268730163574e-01 -9.706323593854904175e-02 -8.673375844955444336e-01
